0.0 0.0 -5.950000000000003
0.0 50.0 -5.594999999999999
0.0 100.0 -5.539999999999999
0.0 150.0 -5.560000000000002
0.0 200.0 -5.515000000000001
0.0 250.0 -5.700000000000003
0.0 300.0 -5.840000000000003
0.0 350.0 -6.030000000000001
0.0 400.0 -6.369999999999997
0.0 450.0 -6.664999999999999
0.0 500.0 -6.960000000000001
0.0 550.0 -7.119999999999997
0.0 600.0 -7.32
0.0 650.0 -7.454999999999998
0.0 700.0 -7.390000000000001
0.0 750.0 -7.280000000000001
0.0 800.0 -7.159999999999997
0.0 850.0 -6.954999999999998
0.0 900.0 -6.704999999999998
0.0 950.0 -6.395000000000003
0.0 1000.0 -6.185000000000002
0.0 1050.0 -5.939999999999998
0.0 1100.0 -5.634999999999998
50.0 0.0 -5.759999999999998
50.0 50.0 -5.695
50.0 100.0 -5.715000000000003
50.0 150.0 -5.659999999999997
50.0 200.0 -5.664999999999999
50.0 250.0 -5.899999999999999
50.0 300.0 -6.07
50.0 350.0 -6.200000000000003
50.0 400.0 -6.479999999999997
50.0 450.0 -6.725000000000001
50.0 500.0 -7.079999999999998
50.0 550.0 -7.210000000000001
50.0 600.0 -7.305
50.0 650.0 -7.359999999999999
50.0 700.0 -7.435000000000002
50.0 750.0 -7.270000000000003
50.0 800.0 -7.284999999999997
50.0 850.0 -6.990000000000002
50.0 900.0 -6.729999999999997
50.0 950.0 -6.57
50.0 1000.0 -6.299999999999997
50.0 1050.0 -5.969999999999999
50.0 1100.0 -5.789999999999999
100.0 0.0 -5.865000000000002
100.0 50.0 -5.840000000000003
100.0 100.0 -5.854999999999997
100.0 150.0 -5.895000000000003
100.0 200.0 -5.850000000000001
100.0 250.0 -6.149999999999999
100.0 300.0 -6.325000000000003
100.0 350.0 -6.515000000000001
100.0 400.0 -6.674999999999997
100.0 450.0 -6.93
100.0 500.0 -7.164999999999999
100.0 550.0 -7.259999999999998
100.0 600.0 -7.390000000000001
100.0 650.0 -7.560000000000002
100.0 700.0 -7.545000000000002
100.0 750.0 -7.494999999999997
100.0 800.0 -7.399999999999999
100.0 850.0 -7.219999999999999
100.0 900.0 -7.034999999999997
100.0 950.0 -6.689999999999998
100.0 1000.0 -6.399999999999999
100.0 1050.0 -6.094999999999999
100.0 1100.0 -5.875
150.0 0.0 -5.82
150.0 50.0 -5.840000000000003
150.0 100.0 -5.805
150.0 150.0 -5.719999999999999
150.0 200.0 -5.840000000000003
150.0 250.0 -5.960000000000001
150.0 300.0 -6.149999999999999
150.0 350.0 -6.270000000000003
150.0 400.0 -6.539999999999999
150.0 450.0 -6.729999999999997
150.0 500.0 -6.935000000000002
150.0 550.0 -7.155000000000001
150.0 600.0 -7.189999999999998
150.0 650.0 -7.299999999999997
150.0 700.0 -7.405000000000001
150.0 750.0 -7.289999999999999
150.0 800.0 -7.244999999999997
150.0 850.0 -7.140000000000001
150.0 900.0 -6.994999999999997
150.0 950.0 -6.664999999999999
150.0 1000.0 -6.375
150.0 1050.0 -6.094999999999999
150.0 1100.0 -5.939999999999998
200.0 0.0 -5.799999999999997
200.0 50.0 -5.689999999999998
200.0 100.0 -5.695
200.0 150.0 -5.715000000000003
200.0 200.0 -5.825000000000003
200.0 250.0 -5.884999999999998
200.0 300.0 -5.994999999999997
200.0 350.0 -6.204999999999998
200.0 400.0 -6.390000000000001
200.0 450.0 -6.634999999999998
200.0 500.0 -6.825000000000003
200.0 550.0 -7.015000000000001
200.0 600.0 -7.039999999999999
200.0 650.0 -7.195
200.0 700.0 -7.234999999999999
200.0 750.0 -7.234999999999999
200.0 800.0 -7.164999999999999
200.0 850.0 -7.039999999999999
200.0 900.0 -6.725000000000001
200.0 950.0 -6.475000000000001
200.0 1000.0 -6.244999999999997
200.0 1050.0 -5.990000000000002
200.0 1100.0 -5.829999999999998
250.0 0.0 -5.685000000000002
250.0 50.0 -5.590000000000003
250.0 100.0 -5.549999999999997
250.0 150.0 -5.534999999999997
250.0 200.0 -5.604999999999997
250.0 250.0 -5.594999999999999
250.0 300.0 -5.670000000000002
250.0 350.0 -5.909999999999997
250.0 400.0 -6.140000000000001
250.0 450.0 -6.380000000000003
250.0 500.0 -6.564999999999998
250.0 550.0 -6.715000000000003
250.0 600.0 -6.805
250.0 650.0 -6.865000000000002
250.0 700.0 -6.920000000000002
250.0 750.0 -6.935000000000002
250.0 800.0 -6.924999999999997
250.0 850.0 -6.780000000000001
250.0 900.0 -6.579999999999998
250.0 950.0 -6.359999999999999
250.0 1000.0 -6.215000000000003
250.0 1050.0 -5.990000000000002
250.0 1100.0 -5.835000000000001
300.0 0.0 -5.490000000000002
300.0 50.0 -5.325000000000003
300.0 100.0 -5.395000000000003
300.0 150.0 -5.435000000000002
300.0 200.0 -5.424999999999997
300.0 250.0 -5.359999999999999
300.0 300.0 -5.450000000000003
300.0 350.0 -5.664999999999999
300.0 400.0 -5.825000000000003
300.0 450.0 -6.090000000000003
300.0 500.0 -6.284999999999997
300.0 550.0 -6.494999999999997
300.0 600.0 -6.549999999999997
300.0 650.0 -6.609999999999999
300.0 700.0 -6.664999999999999
300.0 750.0 -6.655000000000001
300.0 800.0 -6.615000000000002
300.0 850.0 -6.505000000000003
300.0 900.0 -6.359999999999999
300.0 950.0 -6.130000000000003
300.0 1000.0 -5.990000000000002
300.0 1050.0 -5.899999999999999
300.0 1100.0 -5.755000000000003
350.0 0.0 -5.695
350.0 50.0 -5.534999999999997
350.0 100.0 -5.509999999999998
350.0 150.0 -5.435000000000002
350.0 200.0 -5.369999999999997
350.0 250.0 -5.359999999999999
350.0 300.0 -5.405000000000001
350.0 350.0 -5.600000000000001
350.0 400.0 -5.82
350.0 450.0 -6.064999999999998
350.0 500.0 -6.185000000000002
350.0 550.0 -6.445
350.0 600.0 -6.609999999999999
350.0 650.0 -6.594999999999999
350.0 700.0 -6.689999999999998
350.0 750.0 -6.695
350.0 800.0 -6.505000000000003
350.0 850.0 -6.380000000000003
350.0 900.0 -6.219999999999999
350.0 950.0 -6.049999999999997
350.0 1000.0 -6.030000000000001
350.0 1050.0 -5.859999999999999
350.0 1100.0 -5.829999999999998
400.0 0.0 -5.5
400.0 50.0 -5.475000000000001
400.0 100.0 -5.395000000000003
400.0 150.0 -5.174999999999997
400.0 200.0 -5.274999999999999
400.0 250.0 -5.164999999999999
400.0 300.0 -5.284999999999997
400.0 350.0 -5.395000000000003
400.0 400.0 -5.844999999999999
400.0 450.0 -6.049999999999997
400.0 500.0 -6.015000000000001
400.0 550.0 -6.159999999999997
400.0 600.0 -6.310000000000002
400.0 650.0 -6.244999999999997
400.0 700.0 -6.299999999999997
400.0 750.0 -6.325000000000003
400.0 800.0 -6.32
400.0 850.0 -6.140000000000001
400.0 900.0 -5.969999999999999
400.0 950.0 -5.715000000000003
400.0 1000.0 -5.674999999999997
400.0 1050.0 -5.619999999999997
400.0 1100.0 -5.575000000000003
450.0 0.0 -4.655000000000001
450.0 50.0 -4.715000000000003
450.0 100.0 -4.719999999999999
450.0 150.0 -4.634999999999998
450.0 200.0 -4.585000000000001
450.0 250.0 -4.43
450.0 300.0 -4.479999999999997
450.0 350.0 -4.659999999999997
450.0 400.0 -4.655000000000001
450.0 450.0 -4.704999999999998
450.0 500.0 -4.914999999999999
450.0 550.0 -4.945
450.0 600.0 -5.055
450.0 650.0 -5.119999999999997
450.0 700.0 -5.174999999999997
450.0 750.0 -5.215000000000003
450.0 800.0 -5.195
450.0 850.0 -5.145000000000003
450.0 900.0 -5.024999999999999
450.0 950.0 -4.93
450.0 1000.0 -4.789999999999999
450.0 1050.0 -4.695
450.0 1100.0 -4.604999999999997
500.0 0.0 -4.805
500.0 50.0 -4.719999999999999
500.0 100.0 -4.555
500.0 150.0 -4.490000000000002
500.0 200.0 -4.505000000000003
500.0 250.0 -4.494999999999997
500.0 300.0 -4.445
500.0 350.0 -4.600000000000001
500.0 400.0 -4.645000000000003
500.0 450.0 -4.634999999999998
500.0 500.0 -4.82
500.0 550.0 -4.950000000000003
500.0 600.0 -5.049999999999997
500.0 650.0 -5.055
500.0 700.0 -5.18
500.0 750.0 -5.204999999999998
500.0 800.0 -5.155000000000001
500.0 850.0 -5.075000000000003
500.0 900.0 -5.024999999999999
500.0 950.0 -4.945
500.0 1000.0 -4.859999999999999
500.0 1050.0 -4.844999999999999
500.0 1100.0 -4.765000000000001
550.0 0.0 -4.704999999999998
550.0 50.0 -4.585000000000001
550.0 100.0 -4.465000000000003
550.0 150.0 -4.465000000000003
550.0 200.0 -4.414999999999999
550.0 250.0 -4.340000000000003
550.0 300.0 -4.369999999999997
550.0 350.0 -4.409999999999997
550.0 400.0 -4.469999999999999
550.0 450.0 -4.475000000000001
550.0 500.0 -4.619999999999997
550.0 550.0 -4.759999999999998
550.0 600.0 -4.755000000000003
550.0 650.0 -4.835000000000001
550.0 700.0 -5.005000000000003
550.0 750.0 -4.935000000000002
550.0 800.0 -5.024999999999999
550.0 850.0 -5.005000000000003
550.0 900.0 -4.93
550.0 950.0 -4.810000000000002
550.0 1000.0 -4.810000000000002
550.0 1050.0 -4.784999999999997
550.0 1100.0 -4.869999999999997
600.0 0.0 -4.805
600.0 50.0 -4.685000000000002
600.0 100.0 -4.615000000000002
600.0 150.0 -4.424999999999997
600.0 200.0 -4.494999999999997
600.0 250.0 -4.375
600.0 300.0 -4.43
600.0 350.0 -4.369999999999997
600.0 400.0 -4.545000000000002
600.0 450.0 -4.630000000000003
600.0 500.0 -4.765000000000001
600.0 550.0 -4.840000000000003
600.0 600.0 -4.825000000000003
600.0 650.0 -4.905000000000001
600.0 700.0 -4.979999999999997
600.0 750.0 -5.030000000000001
600.0 800.0 -5.045000000000002
600.0 850.0 -5.060000000000002
600.0 900.0 -4.935000000000002
600.0 950.0 -4.875
600.0 1000.0 -4.869999999999997
600.0 1050.0 -4.895000000000003
600.0 1100.0 -5.030000000000001
650.0 0.0 -5.085000000000001
650.0 50.0 -4.960000000000001
650.0 100.0 -4.884999999999998
650.0 150.0 -4.835000000000001
650.0 200.0 -4.784999999999997
650.0 250.0 -4.765000000000001
650.0 300.0 -4.759999999999998
650.0 350.0 -4.770000000000003
650.0 400.0 -4.844999999999999
650.0 450.0 -4.950000000000003
650.0 500.0 -5.075000000000003
650.0 550.0 -5.149999999999999
650.0 600.0 -5.149999999999999
650.0 650.0 -5.174999999999997
650.0 700.0 -5.219999999999999
650.0 750.0 -5.274999999999999
650.0 800.0 -5.365000000000002
650.0 850.0 -5.350000000000001
650.0 900.0 -5.229999999999997
650.0 950.0 -5.244999999999997
650.0 1000.0 -5.354999999999997
650.0 1050.0 -5.375
650.0 1100.0 -5.460000000000001
700.0 0.0 -5.354999999999997
700.0 50.0 -5.18
700.0 100.0 -5.104999999999997
700.0 150.0 -5.064999999999998
700.0 200.0 -5.009999999999998
700.0 250.0 -4.965000000000003
700.0 300.0 -4.960000000000001
700.0 350.0 -4.945
700.0 400.0 -5.024999999999999
700.0 450.0 -5.085000000000001
700.0 500.0 -5.149999999999999
700.0 550.0 -5.189999999999998
700.0 600.0 -5.329999999999998
700.0 650.0 -5.409999999999997
700.0 700.0 -5.494999999999997
700.0 750.0 -5.555
700.0 800.0 -5.545000000000002
700.0 850.0 -5.579999999999998
700.0 900.0 -5.549999999999997
700.0 950.0 -5.549999999999997
700.0 1000.0 -5.625
700.0 1050.0 -5.674999999999997
700.0 1100.0 -5.795000000000002
750.0 0.0 -5.140000000000001
750.0 50.0 -5.229999999999997
750.0 100.0 -5.170000000000002
750.0 150.0 -5.034999999999997
750.0 200.0 -4.869999999999997
750.0 250.0 -4.670000000000002
750.0 300.0 -4.704999999999998
750.0 350.0 -4.729999999999997
750.0 400.0 -4.780000000000001
750.0 450.0 -4.844999999999999
750.0 500.0 -4.93
750.0 550.0 -4.979999999999997
750.0 600.0 -5.049999999999997
750.0 650.0 -5.119999999999997
750.0 700.0 -5.229999999999997
750.0 750.0 -5.289999999999999
750.0 800.0 -5.405000000000001
750.0 850.0 -5.454999999999998
750.0 900.0 -5.494999999999997
750.0 950.0 -5.5
750.0 1000.0 -5.545000000000002
750.0 1050.0 -5.674999999999997
750.0 1100.0 -5.75
800.0 0.0 -4.770000000000003
800.0 50.0 -4.634999999999998
800.0 100.0 -4.509999999999998
800.0 150.0 -4.450000000000003
800.0 200.0 -4.375
800.0 250.0 -4.344999999999999
800.0 300.0 -4.32
800.0 350.0 -4.329999999999998
800.0 400.0 -4.390000000000001
800.0 450.0 -4.43
800.0 500.0 -4.520000000000003
800.0 550.0 -4.545000000000002
800.0 600.0 -4.744999999999997
800.0 650.0 -4.755000000000003
800.0 700.0 -4.840000000000003
800.0 750.0 -5.009999999999998
800.0 800.0 -5.130000000000003
800.0 850.0 -5.210000000000001
800.0 900.0 -5.335000000000001
800.0 950.0 -5.344999999999999
800.0 1000.0 -5.424999999999997
800.0 1050.0 -5.530000000000001
800.0 1100.0 -5.68
850.0 0.0 -4.590000000000003
850.0 50.0 -4.490000000000002
850.0 100.0 -4.399999999999999
850.0 150.0 -4.329999999999998
850.0 200.0 -4.240000000000002
850.0 250.0 -4.195
850.0 300.0 -4.195
850.0 350.0 -4.18
850.0 400.0 -4.219999999999999
850.0 450.0 -4.25
850.0 500.0 -4.32
850.0 550.0 -4.384999999999998
850.0 600.0 -4.465000000000003
850.0 650.0 -4.534999999999997
850.0 700.0 -4.645000000000003
850.0 750.0 -4.75
850.0 800.0 -4.920000000000002
850.0 850.0 -5.024999999999999
850.0 900.0 -5.174999999999997
850.0 950.0 -5.270000000000003
850.0 1000.0 -5.395000000000003
850.0 1050.0 -5.505000000000003
850.0 1100.0 -5.534999999999997
900.0 0.0 -4.965000000000003
900.0 50.0 -4.825000000000003
900.0 100.0 -4.725000000000001
900.0 150.0 -4.640000000000001
900.0 200.0 -4.564999999999998
900.0 250.0 -4.524999999999999
900.0 300.0 -4.57
900.0 350.0 -4.594999999999999
900.0 400.0 -4.674999999999997
900.0 450.0 -4.704999999999998
900.0 500.0 -4.789999999999999
900.0 550.0 -4.850000000000001
900.0 600.0 -4.954999999999998
900.0 650.0 -5.049999999999997
900.0 700.0 -5.174999999999997
900.0 750.0 -5.314999999999998
900.0 800.0 -5.445
900.0 850.0 -5.534999999999997
900.0 900.0 -5.619999999999997
900.0 950.0 -5.755000000000003
900.0 1000.0 -5.990000000000002
900.0 1050.0 -6.155000000000001
900.0 1100.0 -6.354999999999997
