0.0 0.0 -5.475000000000001
0.0 50.0 -5.295000000000002
0.0 100.0 -5.189999999999998
0.0 150.0 -5.125
0.0 200.0 -5.060000000000002
0.0 250.0 -4.969999999999999
0.0 300.0 -4.895000000000003
0.0 350.0 -4.685000000000002
0.0 400.0 -4.655000000000001
0.0 450.0 -4.625
0.0 500.0 -4.655000000000001
0.0 550.0 -4.634999999999998
0.0 600.0 -4.655000000000001
0.0 650.0 -4.700000000000003
0.0 700.0 -4.729999999999997
0.0 750.0 -4.755000000000003
0.0 800.0 -4.774999999999999
0.0 850.0 -4.68
0.0 900.0 -4.57
0.0 950.0 -4.5
0.0 1000.0 -4.475000000000001
0.0 1050.0 -4.439999999999998
0.0 1100.0 -4.469999999999999
50.0 0.0 -5.655000000000001
50.0 50.0 -5.579999999999998
50.0 100.0 -5.420000000000002
50.0 150.0 -5.335000000000001
50.0 200.0 -5.215000000000003
50.0 250.0 -5.119999999999997
50.0 300.0 -5.049999999999997
50.0 350.0 -4.905000000000001
50.0 400.0 -4.884999999999998
50.0 450.0 -4.865000000000002
50.0 500.0 -4.854999999999997
50.0 550.0 -4.869999999999997
50.0 600.0 -4.880000000000003
50.0 650.0 -4.924999999999997
50.0 700.0 -4.945
50.0 750.0 -4.965000000000003
50.0 800.0 -5.020000000000003
50.0 850.0 -4.994999999999997
50.0 900.0 -4.990000000000002
50.0 950.0 -4.965000000000003
50.0 1000.0 -4.909999999999997
50.0 1050.0 -4.835000000000001
50.0 1100.0 -4.729999999999997
100.0 0.0 -5.649999999999999
100.0 50.0 -5.509999999999998
100.0 100.0 -5.509999999999998
100.0 150.0 -5.479999999999997
100.0 200.0 -5.354999999999997
100.0 250.0 -5.255000000000003
100.0 300.0 -5.174999999999997
100.0 350.0 -5.094999999999999
100.0 400.0 -5.030000000000001
100.0 450.0 -5.034999999999997
100.0 500.0 -5.055
100.0 550.0 -5.079999999999998
100.0 600.0 -5.009999999999998
100.0 650.0 -4.994999999999997
100.0 700.0 -5.020000000000003
100.0 750.0 -5.07
100.0 800.0 -5.164999999999999
100.0 850.0 -5.259999999999998
100.0 900.0 -5.295000000000002
100.0 950.0 -5.229999999999997
100.0 1000.0 -5.090000000000003
100.0 1050.0 -4.975000000000001
100.0 1100.0 -4.884999999999998
150.0 0.0 -5.744999999999997
150.0 50.0 -5.634999999999998
150.0 100.0 -5.520000000000003
150.0 150.0 -5.484999999999999
150.0 200.0 -5.450000000000003
150.0 250.0 -5.375
150.0 300.0 -5.344999999999999
150.0 350.0 -5.229999999999997
150.0 400.0 -5.195
150.0 450.0 -5.195
150.0 500.0 -5.185000000000002
150.0 550.0 -5.155000000000001
150.0 600.0 -5.145000000000003
150.0 650.0 -5.170000000000002
150.0 700.0 -5.210000000000001
150.0 750.0 -5.244999999999997
150.0 800.0 -5.340000000000003
150.0 850.0 -5.369999999999997
150.0 900.0 -5.380000000000003
150.0 950.0 -5.354999999999997
150.0 1000.0 -5.295000000000002
150.0 1050.0 -5.200000000000003
150.0 1100.0 -5.075000000000003
200.0 0.0 -5.725000000000001
200.0 50.0 -5.534999999999997
200.0 100.0 -5.445
200.0 150.0 -5.354999999999997
200.0 200.0 -5.255000000000003
200.0 250.0 -5.149999999999999
200.0 300.0 -5.090000000000003
200.0 350.0 -5.015000000000001
200.0 400.0 -4.975000000000001
200.0 450.0 -5.005000000000003
200.0 500.0 -5.090000000000003
200.0 550.0 -5.104999999999997
200.0 600.0 -5.085000000000001
200.0 650.0 -5.090000000000003
200.0 700.0 -5.170000000000002
200.0 750.0 -5.189999999999998
200.0 800.0 -5.265000000000001
200.0 850.0 -5.274999999999999
200.0 900.0 -5.259999999999998
200.0 950.0 -5.210000000000001
200.0 1000.0 -5.18
200.0 1050.0 -5.174999999999997
200.0 1100.0 -5.204999999999998
250.0 0.0 -5.744999999999997
250.0 50.0 -5.649999999999999
250.0 100.0 -5.5
250.0 150.0 -5.384999999999998
250.0 200.0 -5.274999999999999
250.0 250.0 -5.159999999999997
250.0 300.0 -5.090000000000003
250.0 350.0 -5.024999999999999
250.0 400.0 -5.0
250.0 450.0 -5.009999999999998
250.0 500.0 -5.020000000000003
250.0 550.0 -5.060000000000002
250.0 600.0 -5.094999999999999
250.0 650.0 -5.115000000000002
250.0 700.0 -5.174999999999997
250.0 750.0 -5.25
250.0 800.0 -5.325000000000003
250.0 850.0 -5.325000000000003
250.0 900.0 -5.310000000000002
250.0 950.0 -5.299999999999997
250.0 1000.0 -5.325000000000003
250.0 1050.0 -5.32
250.0 1100.0 -5.270000000000003
300.0 0.0 -5.534999999999997
300.0 50.0 -5.369999999999997
300.0 100.0 -5.305
300.0 150.0 -5.25
300.0 200.0 -5.210000000000001
300.0 250.0 -5.020000000000003
300.0 300.0 -4.945
300.0 350.0 -4.920000000000002
300.0 400.0 -4.850000000000001
300.0 450.0 -4.859999999999999
300.0 500.0 -4.875
300.0 550.0 -4.920000000000002
300.0 600.0 -4.945
300.0 650.0 -4.979999999999997
300.0 700.0 -5.009999999999998
300.0 750.0 -5.049999999999997
300.0 800.0 -5.134999999999998
300.0 850.0 -5.119999999999997
300.0 900.0 -5.155000000000001
300.0 950.0 -5.244999999999997
300.0 1000.0 -5.240000000000002
300.0 1050.0 -5.255000000000003
300.0 1100.0 -5.244999999999997
350.0 0.0 -5.899999999999999
350.0 50.0 -5.700000000000003
350.0 100.0 -5.564999999999998
350.0 150.0 -5.424999999999997
350.0 200.0 -5.244999999999997
350.0 250.0 -5.189999999999998
350.0 300.0 -5.109999999999999
350.0 350.0 -5.079999999999998
350.0 400.0 -5.100000000000001
350.0 450.0 -5.104999999999997
350.0 500.0 -5.125
350.0 550.0 -5.174999999999997
350.0 600.0 -5.225000000000001
350.0 650.0 -5.234999999999999
350.0 700.0 -5.280000000000001
350.0 750.0 -5.289999999999999
350.0 800.0 -5.325000000000003
350.0 850.0 -5.325000000000003
350.0 900.0 -5.299999999999997
350.0 950.0 -5.335000000000001
350.0 1000.0 -5.380000000000003
350.0 1050.0 -5.454999999999998
350.0 1100.0 -5.414999999999999
400.0 0.0 -5.689999999999998
400.0 50.0 -5.57
400.0 100.0 -5.435000000000002
400.0 150.0 -5.265000000000001
400.0 200.0 -5.100000000000001
400.0 250.0 -4.945
400.0 300.0 -4.850000000000001
400.0 350.0 -4.82
400.0 400.0 -4.810000000000002
400.0 450.0 -4.854999999999997
400.0 500.0 -4.899999999999999
400.0 550.0 -4.93
400.0 600.0 -5.005000000000003
400.0 650.0 -4.975000000000001
400.0 700.0 -4.994999999999997
400.0 750.0 -5.0
400.0 800.0 -5.049999999999997
400.0 850.0 -5.049999999999997
400.0 900.0 -5.354999999999997
400.0 950.0 -5.075000000000003
400.0 1000.0 -5.104999999999997
400.0 1050.0 -5.215000000000003
400.0 1100.0 -5.369999999999997
450.0 0.0 -5.204999999999998
450.0 50.0 -5.049999999999997
450.0 100.0 -4.945
450.0 150.0 -4.810000000000002
450.0 200.0 -4.645000000000003
450.0 250.0 -4.549999999999997
450.0 300.0 -4.454999999999998
450.0 350.0 -4.359999999999999
450.0 400.0 -4.289999999999999
450.0 450.0 -4.225000000000001
450.0 500.0 -4.240000000000002
450.0 550.0 -4.234999999999999
450.0 600.0 -4.265000000000001
450.0 650.0 -4.350000000000001
450.0 700.0 -4.265000000000001
450.0 750.0 -4.295000000000002
450.0 800.0 -4.350000000000001
450.0 850.0 -4.344999999999999
450.0 900.0 -4.390000000000001
450.0 950.0 -4.484999999999999
450.0 1000.0 -4.585000000000001
450.0 1050.0 -4.625
450.0 1100.0 -4.850000000000001
500.0 0.0 -5.015000000000001
500.0 50.0 -4.784999999999997
500.0 100.0 -4.659999999999997
500.0 150.0 -4.555
500.0 200.0 -4.384999999999998
500.0 250.0 -4.375
500.0 300.0 -4.280000000000001
500.0 350.0 -4.219999999999999
500.0 400.0 -4.130000000000003
500.0 450.0 -4.119999999999997
500.0 500.0 -4.119999999999997
500.0 550.0 -4.18
500.0 600.0 -4.170000000000002
500.0 650.0 -4.18
500.0 700.0 -4.225000000000001
500.0 750.0 -4.234999999999999
500.0 800.0 -4.325000000000003
500.0 850.0 -4.375
500.0 900.0 -4.335000000000001
500.0 950.0 -4.375
500.0 1000.0 -4.405000000000001
500.0 1050.0 -4.490000000000002
500.0 1100.0 -4.630000000000003
550.0 0.0 -5.024999999999999
550.0 50.0 -4.905000000000001
550.0 100.0 -4.770000000000003
550.0 150.0 -4.655000000000001
550.0 200.0 -4.564999999999998
550.0 250.0 -4.505000000000003
550.0 300.0 -4.409999999999997
550.0 350.0 -4.314999999999998
550.0 400.0 -4.244999999999997
550.0 450.0 -4.189999999999998
550.0 500.0 -4.204999999999998
550.0 550.0 -4.185000000000002
550.0 600.0 -4.210000000000001
550.0 650.0 -4.25
550.0 700.0 -4.305
550.0 750.0 -4.314999999999998
550.0 800.0 -4.354999999999997
550.0 850.0 -4.365000000000002
550.0 900.0 -4.445
550.0 950.0 -4.490000000000002
550.0 1000.0 -4.609999999999999
550.0 1050.0 -4.689999999999998
550.0 1100.0 -4.75
600.0 0.0 -4.905000000000001
600.0 50.0 -4.765000000000001
600.0 100.0 -4.715000000000003
600.0 150.0 -4.575000000000003
600.0 200.0 -4.490000000000002
600.0 250.0 -4.420000000000002
600.0 300.0 -4.359999999999999
600.0 350.0 -4.310000000000002
600.0 400.0 -4.225000000000001
600.0 450.0 -4.170000000000002
600.0 500.0 -4.115000000000002
600.0 550.0 -4.119999999999997
600.0 600.0 -4.130000000000003
600.0 650.0 -4.155000000000001
600.0 700.0 -4.25
600.0 750.0 -4.259999999999998
600.0 800.0 -4.329999999999998
600.0 850.0 -4.384999999999998
600.0 900.0 -4.460000000000001
600.0 950.0 -4.594999999999999
600.0 1000.0 -4.729999999999997
600.0 1050.0 -4.854999999999997
600.0 1100.0 -5.015000000000001
650.0 0.0 -5.0
650.0 50.0 -4.920000000000002
650.0 100.0 -4.82
650.0 150.0 -4.734999999999999
650.0 200.0 -4.619999999999997
650.0 250.0 -4.555
650.0 300.0 -4.465000000000003
650.0 350.0 -4.369999999999997
650.0 400.0 -4.274999999999999
650.0 450.0 -4.295000000000002
650.0 500.0 -4.284999999999997
650.0 550.0 -4.299999999999997
650.0 600.0 -4.32
650.0 650.0 -4.365000000000002
650.0 700.0 -4.43
650.0 750.0 -4.494999999999997
650.0 800.0 -4.575000000000003
650.0 850.0 -4.604999999999997
650.0 900.0 -4.740000000000002
650.0 950.0 -4.835000000000001
650.0 1000.0 -5.0
650.0 1050.0 -5.140000000000001
650.0 1100.0 -5.174999999999997
700.0 0.0 -5.274999999999999
700.0 50.0 -5.085000000000001
700.0 100.0 -5.005000000000003
700.0 150.0 -4.945
700.0 200.0 -4.840000000000003
700.0 250.0 -4.784999999999997
700.0 300.0 -4.719999999999999
700.0 350.0 -4.655000000000001
700.0 400.0 -4.615000000000002
700.0 450.0 -4.579999999999998
700.0 500.0 -4.575000000000003
700.0 550.0 -4.579999999999998
700.0 600.0 -4.600000000000001
700.0 650.0 -4.634999999999998
700.0 700.0 -4.664999999999999
700.0 750.0 -4.710000000000001
700.0 800.0 -4.814999999999998
700.0 850.0 -4.890000000000001
700.0 900.0 -4.984999999999999
700.0 950.0 -5.064999999999998
700.0 1000.0 -5.244999999999997
700.0 1050.0 -5.384999999999998
700.0 1100.0 -5.645000000000003
750.0 0.0 -5.445
750.0 50.0 -5.609999999999999
750.0 100.0 -5.335000000000001
750.0 150.0 -5.189999999999998
750.0 200.0 -4.965000000000003
750.0 250.0 -4.825000000000003
750.0 300.0 -4.719999999999999
750.0 350.0 -4.68
750.0 400.0 -4.645000000000003
750.0 450.0 -4.615000000000002
750.0 500.0 -4.594999999999999
750.0 550.0 -4.545000000000002
750.0 600.0 -4.600000000000001
750.0 650.0 -4.704999999999998
750.0 700.0 -4.810000000000002
750.0 750.0 -4.899999999999999
750.0 800.0 -5.060000000000002
750.0 850.0 -5.174999999999997
750.0 900.0 -5.289999999999999
750.0 950.0 -5.369999999999997
750.0 1000.0 -5.545000000000002
750.0 1050.0 -5.725000000000001
750.0 1100.0 -5.939999999999998
800.0 0.0 -5.255000000000003
800.0 50.0 -5.030000000000001
800.0 100.0 -4.960000000000001
800.0 150.0 -4.859999999999999
800.0 200.0 -4.780000000000001
800.0 250.0 -4.729999999999997
800.0 300.0 -4.655000000000001
800.0 350.0 -4.604999999999997
800.0 400.0 -4.57
800.0 450.0 -4.57
800.0 500.0 -4.609999999999999
800.0 550.0 -4.649999999999999
800.0 600.0 -4.649999999999999
800.0 650.0 -4.740000000000002
800.0 700.0 -4.880000000000003
800.0 750.0 -5.015000000000001
800.0 800.0 -5.094999999999999
800.0 850.0 -5.185000000000002
800.0 900.0 -5.340000000000003
800.0 950.0 -5.484999999999999
800.0 1000.0 -5.670000000000002
800.0 1050.0 -5.859999999999999
800.0 1100.0 -6.079999999999998
850.0 0.0 -5.215000000000003
850.0 50.0 -5.075000000000003
850.0 100.0 -4.975000000000001
850.0 150.0 -4.914999999999999
850.0 200.0 -4.835000000000001
850.0 250.0 -4.789999999999999
850.0 300.0 -4.704999999999998
850.0 350.0 -4.664999999999999
850.0 400.0 -4.645000000000003
850.0 450.0 -4.609999999999999
850.0 500.0 -4.600000000000001
850.0 550.0 -4.604999999999997
850.0 600.0 -4.659999999999997
850.0 650.0 -4.725000000000001
850.0 700.0 -4.854999999999997
850.0 750.0 -4.965000000000003
850.0 800.0 -5.134999999999998
850.0 850.0 -5.244999999999997
850.0 900.0 -5.445
850.0 950.0 -5.594999999999999
850.0 1000.0 -5.744999999999997
850.0 1050.0 -5.945
850.0 1100.0 -6.090000000000003
900.0 0.0 -5.140000000000001
900.0 50.0 -4.990000000000002
900.0 100.0 -4.875
900.0 150.0 -4.759999999999998
900.0 200.0 -4.674999999999997
900.0 250.0 -4.600000000000001
900.0 300.0 -4.555
900.0 350.0 -4.524999999999999
900.0 400.0 -4.484999999999999
900.0 450.0 -4.520000000000003
900.0 500.0 -4.594999999999999
900.0 550.0 -4.619999999999997
900.0 600.0 -4.710000000000001
900.0 650.0 -4.770000000000003
900.0 700.0 -4.914999999999999
900.0 750.0 -5.0
900.0 800.0 -5.155000000000001
900.0 850.0 -5.25
900.0 900.0 -5.399999999999999
900.0 950.0 -5.564999999999998
900.0 1000.0 -5.700000000000003
900.0 1050.0 -5.939999999999998
900.0 1100.0 -6.174999999999997
