0.0 0.0 -0.7600000000000016
0.0 100.0 -0.8249999999999993
0.0 200.0 -0.860000000000003
0.0 300.0 -0.8850000000000016
0.0 400.0 -0.8450000000000024
0.0 500.0 -0.8499999999999979
0.0 600.0 -0.6849999999999987
0.0 700.0 -0.6400000000000041
0.0 800.0 -0.5449999999999982
0.0 900.0 -0.5899999999999999
0.0 1000.0 -0.6149999999999984
0.0 1100.0 -0.745000000000001
100.0 0.0 -1.0350000000000001
100.0 100.0 -1.0350000000000001
100.0 200.0 -1.0150000000000041
100.0 300.0 -1.0350000000000001
100.0 400.0 -1.0449999999999982
100.0 500.0 -1.0100000000000016
100.0 600.0 -0.8350000000000044
100.0 700.0 -0.7850000000000001
100.0 800.0 -0.7750000000000021
100.0 900.0 -0.7750000000000021
100.0 1000.0 -0.8300000000000018
100.0 1100.0 -1.0150000000000041
200.0 0.0 -1.3050000000000033
200.0 100.0 -1.235000000000003
200.0 200.0 -1.1849999999999987
200.0 300.0 -1.1449999999999996
200.0 400.0 -1.129999999999999
200.0 500.0 -1.1400000000000041
200.0 600.0 -1.0350000000000001
200.0 700.0 -1.0350000000000001
200.0 800.0 -0.9600000000000044
200.0 900.0 -0.9400000000000013
200.0 1000.0 -0.8850000000000016
200.0 1100.0 -1.0199999999999996
300.0 0.0 -1.3499999999999979
300.0 100.0 -1.2249999999999979
300.0 200.0 -1.110000000000003
300.0 300.0 -1.0150000000000041
300.0 400.0 -0.9450000000000038
300.0 500.0 -0.9199999999999982
300.0 600.0 -0.8949999999999996
300.0 700.0 -0.9000000000000021
300.0 800.0 -0.9050000000000047
300.0 900.0 -0.9700000000000024
300.0 1000.0 -1.0749999999999993
300.0 1100.0 -1.3050000000000033
400.0 0.0 -1.5850000000000044
400.0 100.0 -1.4100000000000001
400.0 200.0 -1.254999999999999
400.0 300.0 -1.1449999999999996
400.0 400.0 -1.1250000000000036
400.0 500.0 -1.1500000000000021
400.0 600.0 -1.1250000000000036
400.0 700.0 -1.1400000000000041
400.0 800.0 -1.1350000000000016
400.0 900.0 -1.1600000000000001
400.0 1000.0 -1.1849999999999987
400.0 1100.0 -1.4450000000000038
500.0 0.0 -1.4349999999999987
500.0 100.0 -1.6849999999999987
500.0 200.0 -1.9199999999999982
500.0 300.0 -2.1149999999999984
500.0 400.0 -2.265000000000004
500.0 500.0 -2.360000000000003
500.0 600.0 -2.379999999999999
500.0 700.0 -2.3649999999999984
500.0 800.0 -2.2699999999999996
500.0 900.0 -2.275000000000002
500.0 1000.0 -2.3649999999999984
500.0 1100.0 -2.8000000000000007
600.0 0.0 -2.0199999999999996
600.0 100.0 -2.3000000000000007
600.0 200.0 -2.5550000000000033
600.0 300.0 -2.705000000000002
600.0 400.0 -2.7500000000000036
600.0 500.0 -2.8050000000000033
600.0 600.0 -2.7900000000000027
600.0 700.0 -2.870000000000001
600.0 800.0 -2.8050000000000033
600.0 900.0 -2.8099999999999987
600.0 1000.0 -2.8450000000000024
600.0 1100.0 -3.2900000000000027
700.0 0.0 -2.570000000000004
700.0 100.0 -2.735000000000003
700.0 200.0 -2.919999999999998
700.0 300.0 -2.974999999999998
700.0 400.0 -3.025000000000002
700.0 500.0 -3.1050000000000004
700.0 600.0 -3.129999999999999
700.0 700.0 -3.2200000000000024
700.0 800.0 -3.254999999999999
700.0 900.0 -3.3450000000000024
700.0 1000.0 -3.465
700.0 1100.0 -4.195000000000004
800.0 0.0 -2.9700000000000024
800.0 100.0 -3.140000000000004
800.0 200.0 -3.294999999999998
800.0 300.0 -3.3450000000000024
800.0 400.0 -3.330000000000002
800.0 500.0 -3.3000000000000007
800.0 600.0 -3.265000000000004
800.0 700.0 -3.41
800.0 800.0 -3.5950000000000024
800.0 900.0 -3.794999999999998
800.0 1000.0 -4.02
800.0 1100.0 -4.385000000000002
900.0 0.0 -3.3949999999999996
900.0 100.0 -3.515000000000004
900.0 200.0 -3.544999999999998
900.0 300.0 -3.5599999999999987
900.0 400.0 -3.5199999999999996
900.0 500.0 -3.419999999999998
900.0 600.0 -3.3850000000000016
900.0 700.0 -3.5100000000000016
900.0 800.0 -3.8050000000000033
900.0 900.0 -4.23
900.0 1000.0 -4.595000000000002
900.0 1100.0 -4.974999999999998
